16.196962 13.614734 6.612048 0 0 0
16.200747 13.814734 6.683393 0 0 0
16.196962 13.883702 6.683393 0 0 0
16.183569 14.014734 6.683393 0 0 0
16.196962 14.214734 6.798937 0 0 0
16.223532 14.214734 6.883393 0 0 0
16.196962 14.014734 6.724872 0 0 0
16.244246 14.014734 6.883393 0 0 0
16.298157 14.014734 7.083394 0 0 0
16.358126 14.014734 7.283393 0 0 0
16.403381 14.214734 7.483394 0 0 0
16.443203 14.214734 7.683393 0 0 0
16.439470 14.414734 7.683393 0 0 0
16.461861 14.414734 7.883393 0 0 0
16.396961 14.414734 7.997385 0 0 0
16.396961 14.214734 7.871809 0 0 0
16.427195 14.014734 7.683393 0 0 0
16.396961 14.014734 7.735886 0 0 0
16.196962 14.133087 7.883393 0 0 0
15.966588 14.014734 7.883393 0 0 0
16.196962 14.014734 7.809477 0 0 0
16.396961 13.923482 7.683393 0 0 0
16.416115 14.014734 7.483394 0 0 0
16.396961 14.014734 7.410982 0 0 0
16.384474 13.814734 7.283393 0 0 0
16.396961 13.814734 7.325269 0 0 0
16.415813 13.814734 7.483394 0 0 0
16.396961 13.814734 7.582778 0 0 0
16.248470 13.814734 7.683393 0 0 0
16.196962 13.814734 7.699022 0 0 0
16.196962 13.614734 7.572935 0 0 0
16.396961 13.662721 7.483394 0 0 0
16.392183 13.699201 7.386181 0 0 0
16.380781 13.614734 7.483394 0 0 0
16.396961 13.614734 7.458245 0 0 0
16.396961 13.673545 7.283393 0 0 0
16.319132 13.814734 7.083394 0 0 0
16.261427 13.814734 6.883393 0 0 0
16.281164 13.614734 6.883393 0 0 0
16.219034 13.614734 6.683393 0 0 0
16.241436 13.414734 6.683393 0 0 0
16.324593 13.214734 6.883393 0 0 0
16.301060 13.414734 6.883393 0 0 0
16.343672 13.614734 7.083394 0 0 0
16.398298 13.614734 7.283393 0 0 0
16.396961 13.510023 7.283393 0 0 0
16.196962 13.434320 7.483394 0 0 0
16.148760 13.414734 7.483394 0 0 0
16.196962 13.214734 7.352841 0 0 0
15.996962 13.352674 7.483394 0 0 0
15.996962 13.414734 7.519427 0 0 0
15.996962 13.614734 7.637294 0 0 0
15.996962 13.688588 7.683393 0 0 0
15.996962 13.814734 7.752889 0 0 0
15.796962 13.921538 7.883393 0 0 0
15.596962 13.814734 7.890915 0 0 0
15.394715 14.014734 8.083393 0 0 0
15.396961 14.214734 8.200757 0 0 0
15.487735 14.414734 8.283394 0 0 0
15.596962 14.483025 8.283394 0 0 0
15.596962 14.614734 8.359317 0 0 0
15.396961 14.696499 8.483394 0 0 0
15.396961 14.614734 8.434243 0 0 0
15.396961 14.414734 8.311692 0 0 0
15.396961 14.360851 8.283394 0 0 0
15.196961 14.414734 8.387753 0 0 0
15.167874 14.214734 8.283394 0 0 0
15.196961 14.014734 8.155234 0 0 0
15.196961 13.888731 8.083393 0 0 0
15.396961 13.814734 7.963779 0 0 0
15.196961 13.814734 8.041682 0 0 0
15.083321 13.814734 8.083393 0 0 0
15.196961 13.614734 7.921445 0 0 0
15.308681 13.614734 7.883393 0 0 0
15.396961 13.668528 7.883393 0 0 0
15.396961 13.614734 7.852733 0 0 0
15.396961 13.414734 7.730055 0 0 0
15.596962 13.614734 7.775701 0 0 0
15.796962 13.814734 7.820567 0 0 0
15.856753 13.614734 7.683393 0 0 0
15.796962 13.614734 7.703210 0 0 0
15.796962 13.580068 7.683393 0 0 0
15.596962 13.451319 7.683393 0 0 0
15.532926 13.414734 7.683393 0 0 0
15.396961 13.333265 7.683393 0 0 0
15.196961 13.414734 7.805192 0 0 0
15.196961 13.547421 7.883393 0 0 0
15.196961 13.214734 7.688589 0 0 0
14.996962 13.078618 7.683393 0 0 0
14.996962 13.014734 7.648257 0 0 0
14.996962 12.814734 7.526564 0 0 0
14.996962 12.740483 7.483394 0 0 0
14.996962 12.614734 7.410534 0 0 0
15.119549 12.814734 7.483394 0 0 0
15.196961 13.014734 7.571702 0 0 0
15.396961 13.214734 7.616321 0 0 0
15.596962 13.214734 7.538485 0 0 0
15.596962 13.414734 7.661400 0 0 0
15.796962 13.414734 7.585826 0 0 0
15.796962 13.235238 7.483394 0 0 0
15.763850 13.214734 7.483394 0 0 0
15.596962 13.113837 7.483394 0 0 0
15.796962 13.014734 7.354258 0 0 0
15.196961 12.865315 7.483394 0 0 0
15.996962 13.214734 7.401116 0 0 0
15.996962 13.014734 7.290581 0 0 0
16.196962 13.085359 7.283393 0 0 0
16.338293 13.214734 7.283393 0 0 0
16.392225 13.414734 7.283393 0 0 0
16.363050 13.414734 7.083394 0 0 0
16.365757 13.214734 7.083394 0 0 0
16.348249 13.014734 7.083394 0 0 0
16.196962 13.014734 7.240466 0 0 0
15.996962 12.814734 7.169024 0 0 0
16.196962 12.814734 7.129464 0 0 0
16.299273 12.814734 7.083394 0 0 0
16.340828 13.014734 6.883393 0 0 0
16.196962 12.736697 7.083394 0 0 0
15.996962 12.662086 7.083394 0 0 0
15.796962 12.814734 7.238916 0 0 0
15.796962 12.891202 7.283393 0 0 0
1.596961 18.523870 5.883393 0 0 0
1.396961 18.614735 6.011383 0 0 0
1.396961 18.734497 6.083394 0 0 0
1.528849 18.814734 6.083394 0 0 0
1.596961 18.614735 5.935891 0 0 0
1.751179 18.614735 5.883393 0 0 0
1.796961 18.614735 5.868096 0 0 0
1.996961 18.762350 5.883393 0 0 0
1.996961 18.814734 5.914209 0 0 0
1.996961 19.014734 6.040607 0 0 0
1.796961 18.814734 5.987847 0 0 0
1.596961 18.814734 6.060176 0 0 0
1.596961 18.855455 6.083394 0 0 0
1.796961 19.014734 6.105043 0 0 0
1.796961 18.976210 6.083394 0 0 0
1.867106 19.014734 6.083394 0 0 0
1.996961 19.214735 6.156674 0 0 0
1.996961 19.424318 6.283393 0 0 0
1.996961 19.614735 6.397728 0 0 0
2.196961 19.614735 6.322205 0 0 0
2.196961 19.547081 6.283393 0 0 0
2.196961 19.414734 6.208149 0 0 0
2.205327 19.214735 6.083394 0 0 0
1.996961 19.089836 6.083394 0 0 0
2.396961 19.325720 6.083394 0 0 0
2.544649 19.414734 6.083394 0 0 0
2.396961 19.414734 6.134912 0 0 0
2.313322 19.614735 6.283393 0 0 0
2.196961 19.814734 6.451368 0 0 0
2.102811 19.814734 6.483394 0 0 0
2.196961 19.869469 6.483394 0 0 0
2.396961 19.814734 6.374350 0 0 0
2.396961 19.994864 6.483394 0 0 0
2.196961 20.014734 6.569188 0 0 0
1.996961 20.014734 6.643341 0 0 0
1.996961 20.083630 6.683393 0 0 0
1.996961 19.814734 6.515838 0 0 0
1.996961 19.758753 6.483394 0 0 0
1.796961 19.614735 6.470097 0 0 0
1.757745 19.614735 6.483394 0 0 0
1.796961 19.814734 6.589695 0 0 0
1.596961 19.614735 6.539221 0 0 0
1.396961 19.733732 6.683393 0 0 0
1.196961 19.814734 6.810727 0 0 0
1.196961 19.942738 6.883393 0 0 0
1.317596 20.014734 6.883393 0 0 0
1.396961 20.056736 6.883393 0 0 0
1.596961 20.214735 6.904227 0 0 0
1.661325 20.214735 6.883393 0 0 0
1.596961 20.176262 6.883393 0 0 0
1.596961 20.014734 6.786840 0 0 0
1.396961 20.014734 6.858825 0 0 0
1.396961 19.814734 6.730986 0 0 0
1.541614 19.814734 6.683393 0 0 0
1.596961 19.814734 6.665537 0 0 0
1.796961 20.014734 6.708929 0 0 0
1.796961 19.970798 6.683393 0 0 0
1.874628 20.014734 6.683393 0 0 0
1.996961 20.214735 6.759870 0 0 0
1.796961 20.214735 6.836137 0 0 0
1.796961 20.298735 6.883393 0 0 0
1.996961 20.416674 6.883393 0 0 0
2.196961 20.536573 6.883393 0 0 0
2.326136 20.614735 6.883393 0 0 0
2.196961 20.414734 6.813751 0 0 0
2.196961 20.214735 6.689907 0 0 0
2.396961 20.214735 6.620888 0 0 0
2.432767 20.014734 6.483394 0 0 0
2.596961 20.108215 6.483394 0 0 0
2.596961 20.014734 6.427202 0 0 0
2.596961 19.814734 6.302534 0 0 0
2.396961 19.662317 6.283393 0 0 0
2.396961 19.614735 6.257240 0 0 0
2.596961 19.614735 6.184790 0 0 0
2.796961 19.814734 6.237967 0 0 0
2.796961 19.895235 6.283393 0 0 0
2.656600 19.814734 6.283393 0 0 0
2.596961 19.780396 6.283393 0 0 0
2.796961 20.014734 6.352004 0 0 0
2.796961 20.223902 6.483394 0 0 0
2.996961 20.346144 6.483394 0 0 0
2.996961 20.414734 6.521763 0 0 0
2.996961 20.614735 6.646863 0 0 0
3.196961 20.614735 6.572606 0 0 0
3.396961 20.581730 6.483394 0 0 0
3.454743 20.614735 6.483394 0 0 0
3.596961 20.700012 6.483394 0 0 0
3.795851 20.814734 6.483394 0 0 0
3.796961 21.014734 6.604310 0 0 0
3.596961 20.814734 6.549561 0 0 0
3.396961 20.814734 6.624003 0 0 0
3.228653 20.814734 6.683393 0 0 0
2.996961 20.681078 6.683393 0 0 0
2.890337 20.614735 6.683393 0 0 0
2.796961 20.414734 6.598510 0 0 0
2.796961 20.560734 6.683393 0 0 0
2.796961 20.614735 6.713748 0 0 0
2.596961 20.414734 6.669960 0 0 0
2.596961 20.214735 6.546456 0 0 0
2.396961 20.321690 6.683393 0 0 0
2.396961 20.414734 6.737268 0 0 0
2.555071 20.414734 6.683393 0 0 0
2.596961 20.614735 6.786847 0 0 0
2.396961 20.614735 6.859836 0 0 0
2.396961 20.658112 6.883393 0 0 0
2.596961 20.814734 6.907716 0 0 0
2.596961 20.773653 6.883393 0 0 0
2.672160 20.814734 6.883393 0 0 0
2.796961 21.014734 6.957900 0 0 0
2.996961 21.214735 7.009982 0 0 0
2.996961 21.339586 7.083394 0 0 0
3.125861 21.414734 7.083394 0 0 0
3.196961 21.456503 7.083394 0 0 0
3.396961 21.614735 7.106209 0 0 0
3.396961 21.574982 7.083394 0 0 0
3.465638 21.614735 7.083394 0 0 0
3.596961 21.814734 7.156580 0 0 0
3.596961 22.023579 7.283393 0 0 0
3.596961 22.214735 7.399712 0 0 0
3.596961 22.353458 7.483394 0 0 0
3.596961 22.414734 7.519341 0 0 0
3.706837 22.414734 7.483394 0 0 0
3.796961 22.214735 7.325163 0 0 0
3.796961 22.414734 7.452036 0 0 0
3.796961 22.470123 7.483394 0 0 0
3.996961 22.414734 7.376022 0 0 0
3.996961 22.594282 7.483394 0 0 0
3.796961 22.614735 7.568307 0 0 0
3.596961 22.614735 7.644881 0 0 0
3.478475 22.614735 7.683393 0 0 0
3.596961 22.683462 7.683393 0 0 0
3.809625 22.814734 7.683393 0 0 0
3.596961 22.814734 7.761024 0 0 0
3.396961 22.814734 7.836515 0 0 0
3.396961 22.614735 7.709391 0 0 0
3.396961 22.570820 7.683393 0 0 0
3.196961 22.449926 7.683393 0 0 0
3.196961 22.614735 7.783366 0 0 0
3.258502 22.814734 7.883393 0 0 0
3.396961 22.895241 7.883393 0 0 0
3.597094 23.014734 7.883393 0 0 0
3.796961 23.014734 7.811637 0 0 0
3.796961 23.136574 7.883393 0 0 0
3.996961 22.926052 7.683393 0 0 0
3.996961 22.814734 7.619591 0 0 0
4.034250 22.614735 7.483394 0 0 0
4.196961 22.711069 7.483394 0 0 0
4.196961 22.814734 7.547020 0 0 0
4.196961 23.033417 7.683393 0 0 0
3.996961 23.014734 7.735717 0 0 0
3.927527 23.214735 7.883393 0 0 0
3.996961 23.214735 7.860968 0 0 0
4.196961 23.214735 7.789947 0 0 0
3.996961 23.254564 7.883393 0 0 0
4.196961 23.378334 7.883393 0 0 0
4.196961 23.414734 7.903872 0 0 0
4.262864 23.414734 7.883393 0 0 0
4.396961 23.414734 7.840137 0 0 0
4.396961 23.214735 7.714900 0 0 0
4.396961 23.159353 7.683393 0 0 0
4.396961 23.014734 7.600944 0 0 0
4.396961 22.825209 7.483394 0 0 0
4.596961 23.014734 7.521545 0 0 0
4.490089 23.214735 7.683393 0 0 0
4.596961 23.414734 7.765517 0 0 0
4.396961 23.488626 7.883393 0 0 0
4.617431 23.614735 7.883393 0 0 0
4.396961 23.614735 7.957889 0 0 0
4.196961 23.614735 8.032056 0 0 0
3.996961 23.414734 7.979644 0 0 0
3.796961 23.214735 7.930146 0 0 0
3.596961 23.214735 8.007556 0 0 0
3.396961 23.014734 7.951772 0 0 0
3.196961 23.014734 8.028426 0 0 0
3.196961 22.814734 7.902882 0 0 0
3.196961 22.780870 7.883393 0 0 0
2.996961 22.658863 7.883393 0 0 0
2.996961 22.814734 7.973764 0 0 0
2.996961 22.614735 7.858365 0 0 0
2.796961 22.814734 8.049674 0 0 0
2.699862 22.814734 8.083393 0 0 0
2.796961 22.874683 8.083393 0 0 0
3.030308 23.014734 8.083393 0 0 0
3.196961 23.110956 8.083393 0 0 0
3.373441 23.214735 8.083393 0 0 0
3.396961 23.214735 8.076109 0 0 0
3.596961 23.342869 8.083393 0 0 0
3.715545 23.414734 8.083393 0 0 0
3.796961 23.414734 8.057652 0 0 0
3.796961 23.460512 8.083393 0 0 0
3.996961 23.584541 8.083393 0 0 0
4.047116 23.614735 8.083393 0 0 0
4.196961 23.699806 8.083393 0 0 0
3.996961 23.814734 8.228672 0 0 0
3.796961 23.614735 8.174209 0 0 0
3.596961 23.614735 8.246733 0 0 0
3.596961 23.414734 8.123023 0 0 0
3.396961 23.414734 8.199663 0 0 0
3.196961 23.214735 8.144197 0 0 0
2.996961 23.214735 8.220510 0 0 0
2.796961 23.014734 8.168973 0 0 0
2.596961 23.014734 8.245655 0 0 0
2.596961 23.078720 8.283394 0 0 0
2.816486 23.214735 8.283394 0 0 0
2.996961 23.321203 8.283394 0 0 0
3.158185 23.414734 8.283394 0 0 0
3.196961 23.414734 8.271314 0 0 0
3.396961 23.557335 8.283394 0 0 0
3.489048 23.614735 8.283394 0 0 0
3.596961 23.678818 8.283394 0 0 0
3.796961 23.795723 8.283394 0 0 0
3.830998 23.814734 8.283394 0 0 0
3.996961 23.908503 8.283394 0 0 0
4.196961 23.814734 8.152442 0 0 0
4.395346 23.814734 8.083393 0 0 0
4.396961 23.814734 8.082872 0 0 0
4.596961 23.814734 8.013523 0 0 0
4.796961 23.722586 7.883393 0 0 0
4.796961 23.614735 7.820144 0 0 0
4.796961 23.395172 7.683393 0 0 0
4.596961 23.278021 7.683393 0 0 0
4.596961 23.214735 7.646994 0 0 0
4.796961 23.214735 7.569888 0 0 0
4.832856 23.414734 7.683393 0 0 0
4.996962 23.513773 7.683393 0 0 0
4.996962 23.614735 7.741616 0 0 0
4.948078 23.814734 7.883393 0 0 0
4.796961 23.814734 7.936165 0 0 0
4.596961 23.933969 8.083393 0 0 0
4.734848 24.014734 8.083393 0 0 0
4.596961 24.014734 8.128592 0 0 0
4.396961 24.014734 8.204027 0 0 0
4.196961 24.023567 8.283394 0 0 0
4.396961 24.150358 8.283394 0 0 0
4.505755 24.214735 8.283394 0 0 0
4.396961 24.214735 8.320660 0 0 0
4.396961 24.414734 8.445688 0 0 0
4.196961 24.214735 8.398852 0 0 0
3.996961 24.014734 8.344913 0 0 0
3.796961 24.014734 8.417799 0 0 0
3.596961 23.814734 8.365160 0 0 0
3.396961 23.814734 8.442392 0 0 0
3.396961 23.614735 8.315687 0 0 0
3.196961 23.614735 8.391885 0 0 0
2.996961 23.414734 8.336933 0 0 0
2.796961 23.414734 8.413654 0 0 0
2.796961 23.534880 8.483394 0 0 0
2.596961 23.418522 8.483394 0 0 0
2.596961 23.214735 8.362261 0 0 0
2.475443 23.014734 8.283394 0 0 0
2.596961 22.814734 8.116725 0 0 0
2.596961 22.757084 8.083393 0 0 0
2.396961 22.634928 8.083393 0 0 0
2.396961 22.814734 8.188608 0 0 0
2.396961 22.974150 8.283394 0 0 0
2.196961 22.853712 8.283394 0 0 0
2.396961 23.014734 8.309038 0 0 0
2.396961 23.214735 8.438791 0 0 0
2.396961 23.295322 8.483394 0 0 0
2.260490 23.214735 8.483394 0 0 0
2.196961 23.014734 8.384208 0 0 0
2.132665 22.814734 8.283394 0 0 0
2.196961 22.814734 8.261950 0 0 0
1.996961 22.814734 8.331892 0 0 0
1.996961 23.014734 8.460584 0 0 0
1.928118 23.014734 8.483394 0 0 0
1.796961 22.942671 8.483394 0 0 0
1.796961 23.014734 8.527871 0 0 0
1.596961 23.014734 8.603292 0 0 0
1.396961 23.014734 8.675178 0 0 0
1.396961 23.214735 8.795989 0 0 0
1.196961 23.014734 8.740616 0 0 0
0.996961 23.014734 8.815703 0 0 0
0.796961 22.814734 8.763395 0 0 0
0.596961 22.814734 8.840569 0 0 0
0.596961 22.887728 8.883393 0 0 0
0.796961 23.009661 8.883393 0 0 0
0.806256 23.014734 8.883393 0 0 0
0.996961 23.127913 8.883393 0 0 0
0.796961 23.214735 9.009514 0 0 0
0.596961 23.014734 8.957335 0 0 0
0.464699 22.814734 8.883393 0 0 0
0.596961 22.614735 8.712133 0 0 0
0.596961 22.563828 8.683393 0 0 0
0.396961 22.776270 8.883393 0 0 0
0.396961 22.814734 8.905689 0 0 0
0.396961 23.014734 9.032435 0 0 0
0.250375 23.014734 9.083393 0 0 0
0.396961 23.100378 9.083393 0 0 0
0.596961 23.219791 9.083393 0 0 0
0.396961 23.214735 9.148532 0 0 0
0.360520 23.414734 9.283394 0 0 0
0.196961 23.414734 9.337432 0 0 0
-0.003039 23.532436 9.483394 0 0 0
0.136826 23.614735 9.483394 0 0 0
-0.003039 23.614735 9.532020 0 0 0
-0.203039 23.614735 9.608811 0 0 0
-0.403039 23.414734 9.551669 0 0 0
-0.603039 23.414734 9.629003 0 0 0
-0.603039 23.214735 9.503798 0 0 0
-0.603039 23.178596 9.483394 0 0 0
-0.803039 23.050585 9.483394 0 0 0
-0.803039 23.014734 9.462630 0 0 0
-0.864976 23.014734 9.483394 0 0 0
-0.803039 23.214735 9.579575 0 0 0
-0.758572 23.414734 9.683393 0 0 0
-0.603039 23.508135 9.683393 0 0 0
-0.422305 23.614735 9.683393 0 0 0
-0.403039 23.614735 9.677299 0 0 0
-0.203039 23.738016 9.683393 0 0 0
-0.073457 23.814734 9.683393 0 0 0
-0.203039 23.814734 9.726305 0 0 0
-0.403039 23.814734 9.801728 0 0 0
-0.603039 23.614735 9.745867 0 0 0
-0.803039 23.614735 9.821906 0 0 0
-0.803039 23.389076 9.683393 0 0 0
-1.003039 23.264061 9.683393 0 0 0
-1.003039 23.414734 9.768548 0 0 0
-0.983100 23.614735 9.883393 0 0 0
-0.803039 23.715134 9.883393 0 0 0
-0.603039 23.831951 9.883393 0 0 0
-0.403039 23.955070 9.883393 0 0 0
-0.299198 24.014734 9.883393 0 0 0
-0.403039 24.014734 9.917859 0 0 0
-0.403039 24.214735 10.040476 0 0 0
-0.603039 24.014734 9.993279 0 0 0
-0.803039 23.814734 9.942178 0 0 0
-1.003039 23.814734 10.015927 0 0 0
-1.003039 23.931545 10.083393 0 0 0
-0.854943 24.014734 10.083393 0 0 0
-0.803039 24.014734 10.066480 0 0 0
-0.603039 24.167952 10.083393 0 0 0
-0.529694 24.214735 10.083393 0 0 0
-0.603039 24.214735 10.110168 0 0 0
-0.803039 24.214735 10.189602 0 0 0
-0.603039 24.414734 10.238236 0 0 0
-0.403039 24.414734 10.158037 0 0 0
-0.403039 24.290802 10.083393 0 0 0
-0.203039 24.214735 9.968357 0 0 0
-0.193377 24.414734 10.083393 0 0 0
-0.403039 24.615522 10.283394 0 0 0
-0.603039 24.492050 10.283394 0 0 0
-0.726174 24.414734 10.283394 0 0 0
-0.603039 24.614735 10.352173 0 0 0
-0.403039 24.814734 10.405732 0 0 0
-0.603039 24.828255 10.483394 0 0 0
-0.403039 24.944939 10.483394 0 0 0
-0.803039 24.706381 10.483394 0 0 0
-0.803039 24.614735 10.431602 0 0 0
-0.959021 24.614735 10.483394 0 0 0
-0.803039 24.414734 10.308681 0 0 0
-0.803039 24.371918 10.283394 0 0 0
-1.003039 24.414734 10.379143 0 0 0
-1.003039 24.590933 10.483394 0 0 0
-1.003039 24.814734 10.623209 0 0 0
-0.803039 24.814734 10.545724 0 0 0
-0.603039 25.014734 10.601366 0 0 0
-0.403039 25.014734 10.523232 0 0 0
-0.287530 25.014734 10.483394 0 0 0
-0.203039 24.814734 10.330777 0 0 0
-0.203039 24.730549 10.283394 0 0 0
-0.203039 24.614735 10.213169 0 0 0
-0.003039 24.528362 10.083393 0 0 0
-0.003039 24.614735 10.135757 0 0 0
-0.063299 24.814734 10.283394 0 0 0
-0.003039 24.814734 10.263914 0 0 0
-0.003039 24.847954 10.283394 0 0 0
0.196961 24.814734 10.188986 0 0 0
0.157474 24.614735 10.083393 0 0 0
0.196961 24.614735 10.070593 0 0 0
0.196961 24.414734 9.945972 0 0 0
-0.003039 24.414734 10.017997 0 0 0
-0.003039 24.193249 9.883393 0 0 0
-0.203039 24.068995 9.883393 0 0 0
-0.203039 24.014734 9.852427 0 0 0
-0.003039 24.014734 9.777882 0 0 0
0.030361 24.214735 9.883393 0 0 0
0.196961 24.309631 9.883393 0 0 0
0.196961 24.214735 9.826548 0 0 0
0.196961 24.014734 9.702542 0 0 0
-0.003039 23.854877 9.683393 0 0 0
-0.003039 23.814734 9.660244 0 0 0
0.196961 23.814734 9.586367 0 0 0
0.196961 23.979025 9.683393 0 0 0
0.255228 24.014734 9.683393 0 0 0
0.396961 24.095671 9.683393 0 0 0
0.396961 24.214735 9.753487 0 0 0
0.396961 24.424183 9.883393 0 0 0
0.396961 24.614735 9.999327 0 0 0
0.396961 24.758844 10.083393 0 0 0
0.396961 24.814734 10.114720 0 0 0
0.493375 24.814734 10.083393 0 0 0
0.596961 24.614735 9.921690 0 0 0
0.596961 24.814734 10.049138 0 0 0
0.596961 24.877199 10.083393 0 0 0
0.709469 24.614735 9.883393 0 0 0
0.596961 24.549681 9.883393 0 0 0
0.596961 24.414734 9.802606 0 0 0
0.596961 24.217072 9.683393 0 0 0
0.796961 24.414734 9.728777 0 0 0
0.796961 24.333635 9.683393 0 0 0
0.941034 24.414734 9.683393 0 0 0
0.796961 24.214735 9.613543 0 0 0
0.996961 24.214735 9.539223 0 0 0
0.996961 24.414734 9.665861 0 0 0
0.996961 24.614735 9.784332 0 0 0
0.796961 24.614735 9.856002 0 0 0
0.796961 24.660875 9.883393 0 0 0
0.796961 24.814734 9.974672 0 0 0
0.796961 24.993853 10.083393 0 0 0
0.596961 25.014734 10.165714 0 0 0
0.396961 25.014734 10.241780 0 0 0
0.274254 25.014734 10.283394 0 0 0
0.396961 25.083548 10.283394 0 0 0
0.612085 25.214735 10.283394 0 0 0
0.396961 25.214735 10.358724 0 0 0
0.196961 25.214735 10.436374 0 0 0
0.196961 25.014734 10.310128 0 0 0
0.196961 24.969259 10.283394 0 0 0
-0.003039 25.014734 10.386048 0 0 0
-0.203039 25.014734 10.456844 0 0 0
-0.203039 25.061081 10.483394 0 0 0
-0.003039 25.177670 10.483394 0 0 0
0.062669 25.214735 10.483394 0 0 0
-0.003039 25.214735 10.504625 0 0 0
-0.203039 25.214735 10.574379 0 0 0
-0.403039 25.214735 10.648673 0 0 0
-0.505339 25.214735 10.683393 0 0 0
-0.403039 25.276386 10.683393 0 0 0
-0.203039 25.395258 10.683393 0 0 0
-0.403039 25.414734 10.766132 0 0 0
-0.603039 25.414734 10.844057 0 0 0
-0.603039 25.480762 10.883393 0 0 0
-0.603039 25.214735 10.718744 0 0 0
-0.603039 25.152523 10.683393 0 0 0
-0.803039 25.014734 10.674385 0 0 0
-0.832479 25.014734 10.683393 0 0 0
-1.003039 24.920050 10.683393 0 0 0
-1.003039 25.014734 10.739193 0 0 0
-1.060044 25.214735 10.883393 0 0 0
-1.003039 25.214735 10.865628 0 0 0
-0.803039 25.214735 10.796242 0 0 0
-0.716204 25.414734 10.883393 0 0 0
-0.603039 25.614735 10.962205 0 0 0
-0.382283 25.614735 10.883393 0 0 0
-0.203039 25.614735 10.821828 0 0 0
-0.166358 25.414734 10.683393 0 0 0
-0.003039 25.414734 10.628009 0 0 0
0.196961 25.296347 10.483394 0 0 0
0.396961 25.418606 10.483394 0 0 0
0.196961 25.414734 10.550942 0 0 0
-0.003039 25.511719 10.683393 0 0 0
-0.003039 25.614735 10.744466 0 0 0
0.174890 25.614735 10.683393 0 0 0
0.196961 25.614735 10.676811 0 0 0
0.396961 25.614735 10.607594 0 0 0
0.396961 25.741575 10.683393 0 0 0
0.520582 25.814734 10.683393 0 0 0
0.396961 25.814734 10.725753 0 0 0
0.196961 25.814734 10.799655 0 0 0
-0.003039 25.814734 10.867243 0 0 0
-0.054214 25.814734 10.883393 0 0 0
-0.203039 25.722635 10.883393 0 0 0
-0.403039 25.814734 11.011742 0 0 0
-0.203039 25.814734 10.934342 0 0 0
-0.003039 26.014734 10.985766 0 0 0
0.196961 26.014734 10.914417 0 0 0
0.196961 25.960241 10.883393 0 0 0
0.293253 26.014734 10.883393 0 0 0
0.196961 26.214735 11.042207 0 0 0
0.071602 26.214735 11.083393 0 0 0
0.196961 26.285955 11.083393 0 0 0
0.396961 26.214735 10.967484 0 0 0
0.396961 26.074497 10.883393 0 0 0
0.396961 26.014734 10.849984 0 0 0
0.596961 26.014734 10.774802 0 0 0
0.627323 26.214735 10.883393 0 0 0
0.596961 26.414734 11.019543 0 0 0
0.416837 26.414734 11.083393 0 0 0
0.596961 26.523220 11.083393 0 0 0
0.746213 26.614735 11.083393 0 0 0
0.796961 26.414734 10.942348 0 0 0
0.796961 26.309269 10.883393 0 0 0
0.796961 26.214735 10.827185 0 0 0
0.796961 25.983604 10.683393 0 0 0
0.596961 25.860323 10.683393 0 0 0
0.596961 25.814734 10.657423 0 0 0
0.596961 25.614735 10.529887 0 0 0
0.596961 25.538139 10.483394 0 0 0
0.596961 25.414734 10.409577 0 0 0
0.796961 25.326052 10.283394 0 0 0
0.796961 25.214735 10.219796 0 0 0
0.835606 25.014734 10.083393 0 0 0
0.996961 25.115232 10.083393 0 0 0
0.996961 25.214735 10.142832 0 0 0
0.944823 25.414734 10.283394 0 0 0
0.796961 25.414734 10.332710 0 0 0
0.727203 25.614735 10.483394 0 0 0
0.796961 25.814734 10.582361 0 0 0
0.851424 26.014734 10.683393 0 0 0
0.996961 26.100304 10.683393 0 0 0
0.996961 26.214735 10.752602 0 0 0
0.996961 26.424225 10.883393 0 0 0
0.996961 26.614735 10.999151 0 0 0
0.796961 26.614735 11.066799 0 0 0
0.796961 26.814734 11.190014 0 0 0
0.796961 26.970543 11.283394 0 0 0
0.796961 27.014734 11.308927 0 0 0
0.872676 27.014734 11.283394 0 0 0
0.796961 27.214735 11.433517 0 0 0
0.654992 27.214735 11.483394 0 0 0
0.596961 27.180496 11.483394 0 0 0
0.596961 27.214735 11.502448 0 0 0
0.596961 27.414734 11.624594 0 0 0
0.796961 27.303970 11.483394 0 0 0
0.996961 27.214735 11.358089 0 0 0
0.996961 27.085215 11.283394 0 0 0
0.996961 27.014734 11.242321 0 0 0
0.996961 26.814734 11.115802 0 0 0
0.996961 26.757784 11.083393 0 0 0
1.096122 26.814734 11.083393 0 0 0
1.196961 26.614735 10.924684 0 0 0
1.196961 26.814734 11.049742 0 0 0
1.196961 26.873838 11.083393 0 0 0
1.196961 27.014734 11.169569 0 0 0
1.220237 27.214735 11.283394 0 0 0
1.396961 27.214735 11.221867 0 0 0
1.425565 27.014734 11.083393 0 0 0
1.396961 26.814734 10.972281 0 0 0
1.312428 26.614735 10.883393 0 0 0
1.196961 26.543325 10.883393 0 0 0
1.196961 26.414734 10.806189 0 0 0
1.196722 26.214735 10.683393 0 0 0
1.196961 26.014734 10.561549 0 0 0
0.996961 26.014734 10.635706 0 0 0
0.996961 25.814734 10.509148 0 0 0
0.796961 25.652256 10.483394 0 0 0
0.796961 25.614735 10.460615 0 0 0
0.996961 25.614735 10.385848 0 0 0
0.996961 25.771137 10.483394 0 0 0
1.075724 25.814734 10.483394 0 0 0
1.196961 25.881712 10.483394 0 0 0
1.196961 25.814734 10.442220 0 0 0
1.196961 25.614735 10.310575 0 0 0
0.996961 25.414734 10.267053 0 0 0
1.196961 25.414734 10.197471 0 0 0
1.167598 25.214735 10.083393 0 0 0
1.196961 25.214735 10.074199 0 0 0
1.196961 25.014734 9.947889 0 0 0
0.996961 25.014734 10.026400 0 0 0
0.996961 24.814734 9.902997 0 0 0
0.996961 24.779743 9.883393 0 0 0
1.055808 24.814734 9.883393 0 0 0
1.196961 24.901531 9.883393 0 0 0
1.196961 24.814734 9.834079 0 0 0
1.196961 24.614735 9.709404 0 0 0
1.196961 24.569008 9.683393 0 0 0
1.196961 24.414734 9.591097 0 0 0
1.275812 24.614735 9.683393 0 0 0
1.396961 24.814734 9.758699 0 0 0
1.396961 25.020130 9.883393 0 0 0
1.396961 25.214735 10.006068 0 0 0
1.396961 25.344620 10.083393 0 0 0
1.396961 25.414734 10.121960 0 0 0
1.512124 25.414734 10.083393 0 0 0
1.596961 25.214735 9.929949 0 0 0
1.596961 25.414734 10.055594 0 0 0
1.596961 25.464052 10.083393 0 0 0
1.796961 25.414734 9.981411 0 0 0
1.796961 25.584749 10.083393 0 0 0
1.596961 25.614735 10.170951 0 0 0
1.396961 25.614735 10.245184 0 0 0
1.281791 25.614735 10.283394 0 0 0
1.396961 25.681170 10.283394 0 0 0
1.623762 25.814734 10.283394 0 0 0
1.396961 25.814734 10.364277 0 0 0
1.196961 25.566984 10.283394 0 0 0
1.418744 26.014734 10.483394 0 0 0
1.596961 26.014734 10.419758 0 0 0
1.796961 25.916210 10.283394 0 0 0
1.796961 25.814734 10.225780 0 0 0
1.850758 25.614735 10.083393 0 0 0
1.996961 25.614735 10.033782 0 0 0
1.996961 25.697416 10.083393 0 0 0
1.996961 25.814734 10.150379 0 0 0
1.959445 26.014734 10.283394 0 0 0
1.796961 26.014734 10.340787 0 0 0
1.596961 26.123068 10.483394 0 0 0
1.396961 26.214735 10.613709 0 0 0
1.196961 26.214735 10.683318 0 0 0
1.396961 26.414734 10.728998 0 0 0
1.396961 26.332638 10.683393 0 0 0
1.596961 26.214735 10.536432 0 0 0
1.752357 26.214735 10.483394 0 0 0
1.796961 26.214735 10.469154 0 0 0
1.996961 26.214735 10.394606 0 0 0
1.996961 26.014734 10.271460 0 0 0
2.196961 26.014734 10.203255 0 0 0
2.196961 25.817715 10.083393 0 0 0
2.196961 25.614735 9.956299 0 0 0
2.396961 25.612751 9.883393 0 0 0
2.196961 25.492142 9.883393 0 0 0
2.070868 25.414734 9.883393 0 0 0
1.996961 25.414734 9.907564 0 0 0
1.796961 25.250721 9.883393 0 0 0
1.996961 25.373005 9.883393 0 0 0
1.996961 25.214735 9.789739 0 0 0
2.196961 25.414734 9.840002 0 0 0
2.396961 25.414734 9.761864 0 0 0
2.400781 25.614735 9.883393 0 0 0
2.396961 25.814734 10.010690 0 0 0
2.396961 25.936155 10.083393 0 0 0
2.396961 26.014734 10.129876 0 0 0
2.529432 26.014734 10.083393 0 0 0
2.596961 25.814734 9.932118 0 0 0
2.596961 25.730671 9.883393 0 0 0
2.596961 25.614735 9.816926 0 0 0
2.596961 25.399494 9.683393 0 0 0
2.396961 25.278473 9.683393 0 0 0
2.292540 25.214735 9.683393 0 0 0
2.196961 25.214735 9.715152 0 0 0
2.196961 25.161711 9.683393 0 0 0
1.996961 25.014734 9.669930 0 0 0
2.196961 25.014734 9.595851 0 0 0
2.396961 25.014734 9.519651 0 0 0
2.396961 25.214735 9.647026 0 0 0
2.596961 25.214735 9.570784 0 0 0
2.628285 25.414734 9.683393 0 0 0
2.796961 25.514229 9.683393 0 0 0
2.796961 25.614735 9.740462 0 0 0
2.742285 25.814734 9.883393 0 0 0
2.796961 25.814734 9.865562 0 0 0
2.796961 26.014734 9.985633 0 0 0
2.596961 26.014734 10.060223 0 0 0
2.596961 26.054600 10.083393 0 0 0
2.596961 26.214735 10.182514 0 0 0
2.796961 26.214735 10.106375 0 0 0
2.796961 26.176226 10.083393 0 0 0
2.865157 26.214735 10.083393 0 0 0
2.796961 26.414734 10.233820 0 0 0
2.646797 26.414734 10.283394 0 0 0
2.596961 26.384846 10.283394 0 0 0
2.396961 26.262007 10.283394 0 0 0
2.396961 26.214735 10.256396 0 0 0
2.313762 26.214735 10.283394 0 0 0
2.196961 26.150177 10.283394 0 0 0
2.196961 26.214735 10.321433 0 0 0
2.196961 26.414734 10.449224 0 0 0
2.085347 26.414734 10.483394 0 0 0
1.996961 26.361958 10.483394 0 0 0
1.996961 26.414734 10.514121 0 0 0
1.796961 26.414734 10.593367 0 0 0
1.596961 26.414734 10.663044 0 0 0
1.531803 26.414734 10.683393 0 0 0
1.596961 26.614735 10.781016 0 0 0
1.396961 26.614735 10.854452 0 0 0
1.396961 26.666052 10.883393 0 0 0
1.596961 26.786261 10.883393 0 0 0
1.596961 27.014734 11.025267 0 0 0
1.647156 26.814734 10.883393 0 0 0
1.796961 26.814734 10.832867 0 0 0
1.796961 26.901247 10.883393 0 0 0
1.796961 27.014734 10.951300 0 0 0
1.596961 27.119595 11.083393 0 0 0
1.596961 27.214735 11.141079 0 0 0
1.396961 27.320011 11.283394 0 0 0
1.196961 27.414734 11.409575 0 0 0
0.996961 27.424414 11.483394 0 0 0
0.796961 27.414734 11.548522 0 0 0
0.596961 27.527294 11.683393 0 0 0
0.396961 27.614735 11.807913 0 0 0
0.396961 27.755449 11.883393 0 0 0
0.396961 27.814734 11.913015 0 0 0
0.396961 28.014734 12.034603 0 0 0
0.396961 28.094721 12.083394 0 0 0
0.596961 28.194345 12.083394 0 0 0
0.596961 28.427738 12.283394 0 0 0
0.796961 28.495979 12.283394 0 0 0
0.796961 28.577799 12.483394 0 0 0
0.996961 28.605242 12.483394 0 0 0
1.095442 28.614735 12.483394 0 0 0
0.996961 28.554073 12.283394 0 0 0
0.996961 28.414734 12.111488 0 0 0
0.796961 28.414734 12.190921 0 0 0
0.643335 28.214735 12.083394 0 0 0
0.796961 28.285231 12.083394 0 0 0
0.996961 28.380348 12.083394 0 0 0
1.079968 28.414734 12.083394 0 0 0
0.996961 28.214735 11.958961 0 0 0
0.796961 28.214735 12.033026 0 0 0
0.596961 28.014734 11.965382 0 0 0
0.485471 27.814734 11.883393 0 0 0
0.596961 27.614735 11.728884 0 0 0
0.733197 27.614735 11.683393 0 0 0
0.796961 27.614735 11.663694 0 0 0
0.996961 27.614735 11.594276 0 0 0
0.796961 27.654985 11.683393 0 0 0
0.796961 27.814734 11.776900 0 0 0
0.996961 27.782150 11.683393 0 0 0
1.042652 27.814734 11.683393 0 0 0
0.996961 28.014734 11.824710 0 0 0
1.196961 27.920614 11.683393 0 0 0
1.196961 27.814734 11.630804 0 0 0
1.196961 27.614735 11.518722 0 0 0
1.196961 27.550936 11.483394 0 0 0
1.301643 27.614735 11.483394 0 0 0
1.396961 27.414734 11.334871 0 0 0
1.552455 27.414734 11.283394 0 0 0
1.596961 27.414734 11.269045 0 0 0
1.596961 27.614735 11.383861 0 0 0
1.396961 27.614735 11.452408 0 0 0
1.396961 27.675856 11.483394 0 0 0
1.396961 27.814734 11.558242 0 0 0
1.361033 28.014734 11.683393 0 0 0
1.196961 28.014734 11.745399 0 0 0
0.996961 28.107874 11.883393 0 0 0
0.828047 28.014734 11.883393 0 0 0
0.596961 27.880207 11.883393 0 0 0
0.596961 27.814734 11.847959 0 0 0
1.199365 28.214735 11.883393 0 0 0
1.196961 28.414734 12.044643 0 0 0
1.196961 28.457420 12.083394 0 0 0
1.196961 28.596460 12.283394 0 0 0
1.196961 28.614735 12.348315 0 0 0
1.196961 28.616373 12.483394 0 0 0
1.257164 28.614735 12.483394 0 0 0
1.291823 28.610838 12.391505 0 0 0
1.396961 28.614735 12.467142 0 0 0
1.596961 28.614735 12.458742 0 0 0
1.796961 28.614735 12.461513 0 0 0
1.996961 28.614735 12.457047 0 0 0
2.196961 28.593363 12.483394 0 0 0
2.396961 28.584162 12.483394 0 0 0
2.196961 28.614735 12.441505 0 0 0
2.396961 28.614735 12.428488 0 0 0
2.596961 28.614735 12.397705 0 0 0
2.596961 28.677343 12.283394 0 0 0
2.396961 28.682899 12.283394 0 0 0
2.196961 28.681374 12.283394 0 0 0
1.996961 28.678480 12.283394 0 0 0
1.796961 28.668261 12.283394 0 0 0
1.596961 28.650595 12.283394 0 0 0
1.396961 28.627222 12.283394 0 0 0
1.305931 28.614735 12.283394 0 0 0
1.396961 28.532763 12.083394 0 0 0
1.396961 28.614735 12.227958 0 0 0
1.596961 28.614735 12.116213 0 0 0
1.674258 28.614735 12.083394 0 0 0
1.596961 28.595251 12.083394 0 0 0
1.396961 28.414734 11.959796 0 0 0
1.396961 28.322136 11.883393 0 0 0
1.396961 28.214735 11.808703 0 0 0
1.396961 28.014734 11.671534 0 0 0
1.596961 28.214735 11.722404 0 0 0
1.596961 28.421711 11.883393 0 0 0
1.796961 28.501757 11.883393 0 0 0
1.796961 28.414734 11.796268 0 0 0
1.996961 28.414734 11.709652 0 0 0
1.996961 28.384272 11.683393 0 0 0
1.996961 28.578592 11.883393 0 0 0
2.066172 28.414734 11.683393 0 0 0
1.996961 28.214735 11.579179 0 0 0
1.796961 28.272142 11.683393 0 0 0
1.699456 28.214735 11.683393 0 0 0
1.796961 28.214735 11.650147 0 0 0
1.796961 28.014734 11.531076 0 0 0
1.932141 28.014734 11.483394 0 0 0
1.796961 27.929821 11.483394 0 0 0
1.596961 28.014734 11.604481 0 0 0
1.596961 28.155180 11.683393 0 0 0
1.617292 27.814734 11.483394 0 0 0
1.796961 27.814734 11.424108 0 0 0
1.796961 27.614735 11.312721 0 0 0
1.796961 27.557749 11.283394 0 0 0
1.796961 27.414734 11.197880 0 0 0
1.796961 27.232002 11.083393 0 0 0
1.996961 27.214735 11.003840 0 0 0
1.996961 27.021454 10.883393 0 0 0
1.996961 26.814734 10.754230 0 0 0
1.873844 26.614735 10.683393 0 0 0
1.796961 26.614735 10.708626 0 0 0
1.596961 26.450531 10.683393 0 0 0
1.796961 26.568167 10.683393 0 0 0
1.996961 26.614735 10.639719 0 0 0
2.196961 26.614735 10.563969 0 0 0
1.996961 26.691999 10.683393 0 0 0
2.203621 26.814734 10.683393 0 0 0
2.196961 27.014734 10.808632 0 0 0
2.196961 27.142025 10.883393 0 0 0
2.196961 27.214735 10.926451 0 0 0
2.321439 27.214735 10.883393 0 0 0
2.396961 27.014734 10.736077 0 0 0
2.396961 26.920496 10.683393 0 0 0
2.396961 26.814734 10.620345 0 0 0
2.396961 26.592621 10.483394 0 0 0
2.196961 26.473114 10.483394 0 0 0
2.396961 26.414734 10.376126 0 0 0
2.596961 26.614735 10.425950 0 0 0
2.436723 26.614735 10.483394 0 0 0
2.596961 26.709398 10.483394 0 0 0
2.596961 26.814734 10.545001 0 0 0
2.552801 27.014734 10.683393 0 0 0
2.596961 27.014734 10.668370 0 0 0
2.596961 27.214735 10.786304 0 0 0
2.396961 27.214735 10.858525 0 0 0
2.396961 27.259676 10.883393 0 0 0
2.396961 27.414734 10.980557 0 0 0
2.596961 27.414734 10.906623 0 0 0
2.596961 27.377144 10.883393 0 0 0
2.669152 27.414734 10.883393 0 0 0
2.596961 27.614735 11.033516 0 0 0
2.447440 27.614735 11.083393 0 0 0
2.396961 27.586479 11.083393 0 0 0
2.196961 27.464413 11.083393 0 0 0
2.196961 27.414734 11.054799 0 0 0
2.108154 27.414734 11.083393 0 0 0
1.996961 27.351038 11.083393 0 0 0
1.996961 27.414734 11.122005 0 0 0
1.883982 27.614735 11.283394 0 0 0
1.996961 27.814734 11.347873 0 0 0
1.996961 28.014734 11.460348 0 0 0
1.996961 28.055506 11.483394 0 0 0
2.196961 28.187355 11.483394 0 0 0
2.196961 28.014734 11.385929 0 0 0
2.239781 28.214735 11.483394 0 0 0
2.196961 28.414734 11.637386 0 0 0
2.196961 28.472164 11.683393 0 0 0
2.108582 28.614735 11.883393 0 0 0
1.996961 28.614735 11.928102 0 0 0
1.796961 28.614735 12.023396 0 0 0
1.796961 28.644623 12.083394 0 0 0
1.996961 28.678425 12.083394 0 0 0
2.196961 28.709124 12.083394 0 0 0
2.396961 28.733034 12.083394 0 0 0
2.596961 28.740162 12.083394 0 0 0
2.796961 28.658375 12.283394 0 0 0
2.996961 28.641045 12.283394 0 0 0
2.796961 28.745052 12.083394 0 0 0
2.996961 28.749268 12.083394 0 0 0
3.196961 28.629135 12.283394 0 0 0
3.396961 28.507240 12.483394 0 0 0
3.596961 28.502245 12.483394 0 0 0
3.796961 28.483385 12.483394 0 0 0
3.996961 28.465921 12.483394 0 0 0
4.196961 28.414734 12.547463 0 0 0
4.396961 28.414734 12.541309 0 0 0
4.396961 28.447470 12.483394 0 0 0
4.196961 28.456144 12.483394 0 0 0
4.196961 28.577999 12.283394 0 0 0
4.396961 28.559423 12.283394 0 0 0
4.396961 28.614735 12.180659 0 0 0
4.596961 28.614735 12.145572 0 0 0
4.596961 28.655447 12.083394 0 0 0
4.796961 28.766029 11.883393 0 0 0
4.796961 28.814734 11.801581 0 0 0
4.996962 28.814734 11.776246 0 0 0
5.196961 28.814734 11.758765 0 0 0
5.196961 28.854607 11.683393 0 0 0
5.396961 28.837730 11.683393 0 0 0
5.396961 28.955658 11.483394 0 0 0
5.596961 28.939878 11.483394 0 0 0
5.796961 28.923822 11.483394 0 0 0
5.996962 29.014734 11.345178 0 0 0
6.196961 29.026646 11.283394 0 0 0
6.286036 29.014734 11.283394 0 0 0
6.396961 28.998537 11.283394 0 0 0
6.596961 28.854715 11.483394 0 0 0
6.596961 28.976755 11.283394 0 0 0
6.396961 29.014734 11.248267 0 0 0
6.596961 29.014734 11.219349 0 0 0
6.396961 29.097698 11.083393 0 0 0
6.196961 29.101667 11.083393 0 0 0
5.996962 29.102556 11.083393 0 0 0
5.996962 29.044609 11.283394 0 0 0
5.796961 29.048267 11.283394 0 0 0
5.796961 29.014734 11.350252 0 0 0
5.596961 29.014734 11.354763 0 0 0
5.596961 29.045378 11.283394 0 0 0
5.796961 29.096779 11.083393 0 0 0
5.996962 29.095112 10.883393 0 0 0
6.196961 29.130592 10.883393 0 0 0
6.396961 29.151621 10.883393 0 0 0
6.596961 29.159132 10.883393 0 0 0
6.596961 29.094330 11.083393 0 0 0
6.796961 29.014734 11.201153 0 0 0
6.796961 29.077576 11.083393 0 0 0
6.796961 29.167982 10.883393 0 0 0
6.796961 29.176756 10.683393 0 0 0
6.596961 29.140766 10.683393 0 0 0
6.396961 29.114002 10.683393 0 0 0
6.196961 29.063213 10.683393 0 0 0
6.068379 29.014734 10.683393 0 0 0
6.196961 29.014734 10.628391 0 0 0
6.396961 29.014734 10.537015 0 0 0
6.536579 29.014734 10.483394 0 0 0
6.396961 28.962091 10.483394 0 0 0
6.196961 28.870625 10.483394 0 0 0
6.051215 28.814734 10.483394 0 0 0
6.196961 28.814734 10.436818 0 0 0
6.396961 28.814734 10.369445 0 0 0
6.596961 28.799494 10.283394 0 0 0
6.596961 29.033625 10.483394 0 0 0
6.796961 29.093838 10.483394 0 0 0
6.796961 29.014734 10.382522 0 0 0
6.630590 28.814734 10.283394 0 0 0
6.796961 28.899532 10.283394 0 0 0
6.996962 29.014734 10.296864 0 0 0
6.996962 29.148006 10.483394 0 0 0
6.996962 29.205240 10.683393 0 0 0
7.090474 29.214735 10.683393 0 0 0
6.996962 29.170206 10.883393 0 0 0
6.996962 29.060812 11.083393 0 0 0
6.996962 29.014734 11.175661 0 0 0
6.796961 28.969320 11.283394 0 0 0
6.796961 28.852966 11.483394 0 0 0
6.996962 28.958025 11.283394 0 0 0
6.996962 28.846516 11.483394 0 0 0
7.196961 28.934416 11.283394 0 0 0
7.196961 29.014734 11.150051 0 0 0
7.196961 29.054340 11.083393 0 0 0
7.396961 29.014734 11.126232 0 0 0
7.396961 29.040560 11.083393 0 0 0
7.196961 29.162613 10.883393 0 0 0
7.196961 29.214735 10.743345 0 0 0
7.396961 29.155182 10.883393 0 0 0
7.596961 29.014734 11.094658 0 0 0
7.396961 28.923853 11.283394 0 0 0
7.371327 28.814734 11.483394 0 0 0
7.196961 28.825628 11.483394 0 0 0
6.996962 28.814734 11.541051 0 0 0
6.796961 28.814734 11.547254 0 0 0
6.796961 28.733980 11.683393 0 0 0
6.996962 28.729170 11.683393 0 0 0
7.196961 28.710426 11.683393 0 0 0
7.196961 28.614735 11.844718 0 0 0
6.996962 28.614735 11.862859 0 0 0
6.796961 28.606857 11.883393 0 0 0
6.608729 28.614735 11.883393 0 0 0
6.596961 28.495956 12.083394 0 0 0
6.596961 28.414734 12.223017 0 0 0
6.596961 28.380785 12.283394 0 0 0
6.796961 28.361385 12.283394 0 0 0
6.996962 28.414734 12.180190 0 0 0
6.796961 28.414734 12.198098 0 0 0
6.796961 28.480890 12.083394 0 0 0
6.996962 28.470173 12.083394 0 0 0
7.196961 28.591280 11.883393 0 0 0
7.396961 28.614735 11.800635 0 0 0
7.396961 28.686262 11.683393 0 0 0
7.596961 28.614735 11.774561 0 0 0
7.596961 28.671293 11.683393 0 0 0
7.596961 28.814734 11.460091 0 0 0
7.596961 28.914026 11.283394 0 0 0
7.796961 28.814734 11.431132 0 0 0
7.796961 28.783588 11.483394 0 0 0
7.796961 28.660297 11.683393 0 0 0
7.796961 28.614735 11.758832 0 0 0
7.996962 28.614735 11.723604 0 0 0
7.996962 28.638723 11.683393 0 0 0
7.996962 28.766012 11.483394 0 0 0
7.996962 28.814734 11.402941 0 0 0
7.796961 28.895662 11.283394 0 0 0
7.660535 29.014734 11.083393 0 0 0
7.596961 29.136339 10.883393 0 0 0
7.396961 29.214735 10.753648 0 0 0
7.596961 29.214735 10.741127 0 0 0
7.396961 29.239979 10.683393 0 0 0
7.196961 29.226646 10.683393 0 0 0
7.210839 29.214735 10.483394 0 0 0
7.396961 29.253784 10.483394 0 0 0
7.596961 29.268269 10.483394 0 0 0
7.596961 29.237446 10.683393 0 0 0
7.796961 29.225214 10.683393 0 0 0
7.796961 29.117126 10.883393 0 0 0
7.796961 29.014734 11.061465 0 0 0
7.996962 28.883110 11.283394 0 0 0
8.196961 28.814734 11.376729 0 0 0
8.196961 28.752071 11.483394 0 0 0
8.196961 28.626459 11.683393 0 0 0
7.996962 28.520338 11.883393 0 0 0
7.796961 28.534189 11.883393 0 0 0
7.596961 28.550201 11.883393 0 0 0
7.396961 28.569355 11.883393 0 0 0
7.196961 28.465275 12.083394 0 0 0
7.196961 28.414734 12.174932 0 0 0
7.196961 28.351175 12.283394 0 0 0
7.396961 28.414734 12.153934 0 0 0
7.396961 28.454454 12.083394 0 0 0
7.596961 28.430216 12.083394 0 0 0
7.726810 28.414734 12.083394 0 0 0
7.596961 28.311529 12.283394 0 0 0
7.396961 28.339907 12.283394 0 0 0
7.396961 28.217665 12.483394 0 0 0
7.463651 28.214735 12.483394 0 0 0
7.596961 28.083611 12.683393 0 0 0
7.596961 28.214735 12.460234 0 0 0
7.796961 28.214735 12.430701 0 0 0
7.796961 28.292780 12.283394 0 0 0
7.796961 28.414734 12.078072 0 0 0
7.996962 28.414734 12.064790 0 0 0
7.996962 28.280359 12.283394 0 0 0
7.996962 28.214735 12.411824 0 0 0
7.796961 28.186007 12.483394 0 0 0
7.796961 28.068541 12.683393 0 0 0
7.796961 28.014734 12.785645 0 0 0
7.796961 27.959295 12.883393 0 0 0
7.996962 28.014734 12.760426 0 0 0
7.996962 27.948387 12.883393 0 0 0
7.996962 27.829201 13.083394 0 0 0
7.996962 27.713573 13.283394 0 0 0
7.996962 27.614735 13.461529 0 0 0
7.996962 27.493179 13.683393 0 0 0
7.996962 27.414734 13.830195 0 0 0
7.996962 27.384413 13.883393 0 0 0
8.196961 27.414734 13.792577 0 0 0
8.196961 27.477539 13.683393 0 0 0
8.396961 27.468641 13.683393 0 0 0
8.196961 27.593960 13.483394 0 0 0
8.196961 27.614735 13.441747 0 0 0
8.396961 27.588543 13.483394 0 0 0
8.396961 27.614735 13.434216 0 0 0
8.196961 27.701180 13.283394 0 0 0
8.196961 27.817711 13.083394 0 0 0
8.196961 27.935614 12.883393 0 0 0
8.196961 28.014734 12.744008 0 0 0
7.996962 28.058319 12.683393 0 0 0
7.996962 28.179317 12.483394 0 0 0
8.196961 28.169580 12.483394 0 0 0
8.196961 28.049673 12.683393 0 0 0
8.396961 28.014734 12.735800 0 0 0
8.396961 27.938158 12.883393 0 0 0
8.396961 27.818331 13.083394 0 0 0
8.396961 27.698254 13.283394 0 0 0
8.596961 27.614735 13.417949 0 0 0
8.596961 27.578218 13.483394 0 0 0
8.596961 27.459581 13.683393 0 0 0
8.796962 27.414734 13.740566 0 0 0
8.796962 27.445566 13.683393 0 0 0
8.796962 27.565823 13.483394 0 0 0
8.796962 27.614735 13.394855 0 0 0
8.596961 27.688639 13.283394 0 0 0
8.523446 27.814734 13.083394 0 0 0
8.596961 27.927414 12.883393 0 0 0
8.596961 27.814734 13.071448 0 0 0
8.796962 27.792953 13.083394 0 0 0
8.796962 27.675501 13.283394 0 0 0
8.996962 27.614735 13.372915 0 0 0
8.996962 27.662951 13.283394 0 0 0
8.996962 27.782419 13.083394 0 0 0
8.796962 27.814734 13.041029 0 0 0
8.796962 27.904413 12.883393 0 0 0
8.996962 27.814734 13.023373 0 0 0
9.196961 27.759495 13.083394 0 0 0
9.196961 27.641020 13.283394 0 0 0
9.196961 27.614735 13.333568 0 0 0
8.996962 27.553936 13.483394 0 0 0
8.996962 27.432465 13.683393 0 0 0
8.996962 27.312637 13.883393 0 0 0
8.996962 27.214735 14.069654 0 0 0
9.196961 27.082150 14.283394 0 0 0
9.396961 27.014734 14.381227 0 0 0
9.596961 26.940084 14.483394 0 0 0
9.708245 26.814734 14.683393 0 0 0
9.796962 26.691574 14.883393 0 0 0
9.996962 26.681068 14.883393 0 0 0
10.196961 26.662382 14.883393 0 0 0
10.396961 26.658463 14.883393 0 0 0
10.196961 26.774569 14.683393 0 0 0
9.996962 26.793926 14.683393 0 0 0
9.796962 26.814734 14.676929 0 0 0
9.996962 26.814734 14.645110 0 0 0
9.796962 26.921595 14.483394 0 0 0
9.796962 27.028622 14.283394 0 0 0
9.596961 27.014734 14.347958 0 0 0
9.396961 27.067379 14.283394 0 0 0
9.596961 27.051271 14.283394 0 0 0
9.596961 27.163874 14.083394 0 0 0
9.396961 27.179729 14.083394 0 0 0
9.196961 27.194016 14.083394 0 0 0
9.196961 27.214735 14.040671 0 0 0
9.196961 27.298685 13.883393 0 0 0
9.396961 27.214735 14.013500 0 0 0
9.596961 27.214735 13.979763 0 0 0
9.796962 27.144625 14.083394 0 0 0
9.996962 27.014734 14.283956 0 0 0
9.996962 26.902155 14.483394 0 0 0
10.196961 26.814734 14.616285 0 0 0
10.196961 26.895182 14.483394 0 0 0
10.396961 26.814734 14.609815 0 0 0
10.396961 26.773556 14.683393 0 0 0
10.596961 26.766771 14.683393 0 0 0
10.596961 26.656614 14.883393 0 0 0
10.596961 26.614735 14.970149 0 0 0
10.796962 26.614735 14.951077 0 0 0
10.796962 26.645323 14.883393 0 0 0
10.796962 26.746311 14.683393 0 0 0
10.996962 26.740742 14.683393 0 0 0
11.196961 26.814734 14.545709 0 0 0
11.196961 26.846199 14.483394 0 0 0
11.396961 26.928583 14.283394 0 0 0
11.396961 27.014734 14.129827 0 0 0
11.596961 27.027935 14.083394 0 0 0
11.596961 27.139511 13.883393 0 0 0
11.396961 27.040398 14.083394 0 0 0
11.196961 27.059555 14.083394 0 0 0
11.196961 27.014734 14.163733 0 0 0
11.196961 26.954128 14.283394 0 0 0
10.996962 26.854874 14.483394 0 0 0
10.996962 26.814734 14.553678 0 0 0
10.796962 26.814734 14.561438 0 0 0
10.796962 26.860893 14.483394 0 0 0
10.996962 26.970949 14.283394 0 0 0
10.996962 27.014734 14.195514 0 0 0
10.996962 27.074320 14.083394 0 0 0
10.996962 27.185263 13.883393 0 0 0
11.196961 27.173149 13.883393 0 0 0
11.396961 27.158220 13.883393 0 0 0
11.596961 27.214735 13.741780 0 0 0
11.796962 27.230442 13.683393 0 0 0
11.996962 27.232521 13.683393 0 0 0
12.196961 27.326176 13.483394 0 0 0
11.996962 27.338779 13.483394 0 0 0
11.796962 27.345810 13.483394 0 0 0
11.596961 27.242842 13.683393 0 0 0
11.596961 27.358294 13.483394 0 0 0
11.396961 27.262341 13.683393 0 0 0
11.396961 27.214735 13.778526 0 0 0
11.196961 27.214735 13.799830 0 0 0
11.196961 27.275564 13.683393 0 0 0
11.396961 27.371918 13.483394 0 0 0
11.396961 27.414734 13.402343 0 0 0
11.596961 27.414734 13.383667 0 0 0
11.796962 27.414734 13.363925 0 0 0
11.996962 27.414734 13.345273 0 0 0
12.196961 27.414734 13.318910 0 0 0
12.396961 27.314564 13.483394 0 0 0
12.596962 27.310768 13.483394 0 0 0
12.796962 27.214735 13.642199 0 0 0
12.996962 27.214735 13.609679 0 0 0
13.196961 27.214735 13.572033 0 0 0
13.196961 27.261690 13.483394 0 0 0
13.196961 27.384056 13.283394 0 0 0
13.396961 27.414734 13.207024 0 0 0
13.396961 27.477396 13.083394 0 0 0
13.596962 27.570833 12.883393 0 0 0
13.796962 27.614735 12.781690 0 0 0
13.796962 27.668835 12.683393 0 0 0
13.996962 27.782265 12.483394 0 0 0
14.196961 27.814734 12.407306 0 0 0
14.196961 27.882530 12.283394 0 0 0
14.396961 27.987988 12.083394 0 0 0
14.596962 28.014734 12.005112 0 0 0
14.796962 28.014734 11.990730 0 0 0
14.796962 28.075480 11.883393 0 0 0
14.596962 28.214735 11.660446 0 0 0
14.596962 28.313961 11.483394 0 0 0
14.765517 28.414734 11.283394 0 0 0
14.796962 28.526461 11.083393 0 0 0
14.796962 28.614735 10.940734 0 0 0
14.796962 28.647844 10.883393 0 0 0
14.596962 28.659163 10.883393 0 0 0
14.596962 28.614735 10.963715 0 0 0
14.596962 28.547764 11.083393 0 0 0
14.396961 28.559546 11.083393 0 0 0
14.196961 28.450745 11.283394 0 0 0
14.396961 28.441612 11.283394 0 0 0
14.596962 28.430168 11.283394 0 0 0
14.396961 28.324701 11.483394 0 0 0
14.396961 28.414734 11.330918 0 0 0
14.196961 28.414734 11.344469 0 0 0
13.996962 28.465954 11.283394 0 0 0
13.796962 28.487423 11.283394 0 0 0
13.996962 28.414734 11.371462 0 0 0
13.796962 28.414734 11.414260 0 0 0
13.596962 28.500492 11.283394 0 0 0
13.396961 28.508768 11.283394 0 0 0
13.396961 28.414734 11.469597 0 0 0
13.196961 28.409876 11.483394 0 0 0
13.196961 28.289129 11.683393 0 0 0
13.196961 28.214735 11.804804 0 0 0
13.196961 28.169943 11.883393 0 0 0
12.996962 28.065878 12.083394 0 0 0
13.196961 28.052191 12.083394 0 0 0
12.996962 28.014734 12.183974 0 0 0
12.796962 28.014734 12.202524 0 0 0
12.596962 28.014734 12.223289 0 0 0
12.396961 28.111845 12.083394 0 0 0
12.396961 28.223160 11.883393 0 0 0
12.196961 28.237040 11.883393 0 0 0
12.196961 28.355726 11.683393 0 0 0
11.996962 28.371445 11.683393 0 0 0
11.996962 28.414734 11.605862 0 0 0
11.796962 28.492151 11.483394 0 0 0
11.596961 28.614735 11.278377 0 0 0
11.480232 28.614735 11.283394 0 0 0
11.596961 28.509266 11.483394 0 0 0
11.796962 28.414734 11.626007 0 0 0
11.796962 28.384754 11.683393 0 0 0
11.996962 28.253853 11.883393 0 0 0
12.196961 28.214735 11.924939 0 0 0
12.196961 28.131075 12.083394 0 0 0
11.996962 28.144844 12.083394 0 0 0
11.996962 28.214735 11.958114 0 0 0
11.796962 28.268330 11.883393 0 0 0
11.796962 28.214735 11.981087 0 0 0
11.796962 28.154903 12.083394 0 0 0
11.596961 28.214735 11.998507 0 0 0
11.596961 28.275303 11.883393 0 0 0
11.596961 28.393057 11.683393 0 0 0
11.596961 28.414734 11.646019 0 0 0
11.396961 28.513792 11.483394 0 0 0
11.396961 28.616522 11.283394 0 0 0
11.196961 28.628174 11.283394 0 0 0
11.196961 28.758652 11.083393 0 0 0
10.996962 28.814734 11.008512 0 0 0
10.796962 28.900606 10.883393 0 0 0
